1.085638463370814932e+01 3.546031073887986196e+01 8.529491791610765006e+01
3.843138858234408417e+01 4.309144779918754153e+01 4.398770035372805154e+01
2.681397122274455924e+01 1.655348803352896425e+01 7.188409340074542797e+01
5.276412634961292980e+01 7.717911437385201623e+01 8.648795831791360911e+01
1.809695135153942402e+01 7.213158516141904286e-01 2.924850218196359819e+01
1.704363977609711966e+01 1.867866269697242387e+01 4.915612334137124151e+01
8.724638404976992945e+01 8.891888690532466910e+01 5.505415703287000895e+01
6.022231234290907054e+01 4.452592812074895434e+00 6.389729307742162234e+01
7.540797834104047581e+01 3.847404748720101253e+01 7.906210229952492341e+00
7.956031403210982944e+01 7.442981202441869470e+01 6.831390409078628068e+01
3.918641192515862315e+01 9.701742803660406977e+00 5.908320789843806153e+01
7.346562753476136720e+01 6.709521284761092375e+01 5.157057776422821860e+01
1.442156957003476414e+01 6.312021085837019285e+01 8.846478733817303919e+01
6.802915394075036204e+01 8.976937420968685899e+01 4.079532112642875319e+01
7.337650507667483168e+01 5.448769378687195086e+01 1.092419323376461193e+01
2.325530877468441204e+01 4.892307999445879574e+01 4.939600445811007745e+01
8.195001195943527250e+01 2.375296774132493738e+01 9.234482960432518439e+01
6.302724969179235615e+01 1.285691929551534507e+01 1.498488817918337546e+01
9.205983786345967701e+01 5.322486046639662050e+01 2.531172007445051619e+01
4.945024792909250522e+01 5.084644250044247116e+01 8.049885928737485585e+01
6.050091592480985980e+01 8.585089000390942715e+01 2.557130850169128067e+01
3.090590874022525014e+01 2.869859635851512714e-01 8.415236672315963062e+01
6.105666108803832515e+01 9.732904982846419273e+01 8.630375663423361488e+00
6.716531327066678614e+01 4.817410765480259016e+01 1.463294361830279655e+01
4.563216911811576182e+01 5.011015819991190057e+01 5.278308728904953284e+01
8.617941135479245673e+00 5.017157386443115286e+01 1.258079345712913621e+01
9.170001691486865525e+01 7.066083890093912601e+01 2.349153557106918910e+01
4.994211275146726337e+01 1.505712497994101717e+01 7.499864467682971281e+01
1.529088242680535181e+01 9.080272487547711080e+01 6.317831588545953281e+01
8.200163428708816582e+01 5.068997121072013101e+01 6.388524921244685828e+01
9.256608779358775507e+01 8.846107683418959766e+01 4.354336933867586623e+01
2.014172995714404024e+01 2.588963359673979170e+01 1.640519523034574689e+01
7.281007216827097750e+01 1.154260531740556317e+01 5.430753403843413452e+01
3.111270111910100411e+01 4.931120546647645853e+01 6.016327211080273685e+01
2.953286356693853776e+01 5.029436011402962237e+01 1.655746119622075696e+01
7.248674160843744119e+01 9.055303745136966143e+01 4.971616865956012532e+01
9.121534540816938375e+01 7.313237547308425235e+01 1.221334274052676694e+00
6.268413021430514220e+01 6.251881696488082341e+00 6.930014307796024298e+01
5.874418676383330506e+01 3.996132918232906661e+01 8.653007701175820898e+01
3.240485638051834627e+01 1.804311179617059580e+01 4.181131120795466671e+00
3.089397095620235589e+01 5.350887513289735864e+01 6.175767231915858702e+01
4.146530588044286247e+01 2.304132071377478042e+01 9.890797815696620887e+01
4.808306934577981906e+01 4.570428629247581398e+01 4.921825730268879795e+01
4.500915455490149952e+01 2.793761763228926753e+01 5.265342931823444417e+01
8.836386224376367693e+01 9.200709984614551473e+00 7.617446619906232286e+00
4.623839935179201177e+01 5.438737580210995048e+01 8.691303583862021753e+01
8.522512676577164825e+01 1.446478346730404319e+01 9.656063739991294881e+01
6.606057503108819162e+01 1.040975163219270883e+01 4.352652019573355346e-01
1.203921793225530834e+01 7.494356676665871930e+01 1.352968303370877301e+01
8.545633736873570641e+00 5.059923882514947024e+01 5.968032588272056671e+01
6.668938213898042022e+01 5.217439307694081663e+01 8.262613006121924286e+01
4.584235353568296745e+01 9.193729545462204555e+01 8.705125558964547849e+01
3.789943945751686982e+01 9.219653557477203165e+00 2.722934006048706124e+01
9.655740446640483299e+01 4.436561502684745051e+01 5.245225362710969108e+01
4.213984347535446773e+01 9.192672226606252650e+01 4.052326922841423595e+01
8.813575675716673175e+01 9.760936315883613190e+01 9.095072531745479694e+01
5.931119404429909991e+01 1.396116986593505160e+01 1.010067258036724169e+01
9.524751098153938500e+00 9.641686191354604318e+01 9.610448415000611533e+01
4.294437636462114938e+01 7.443008839088960826e+01 2.342734203291518824e+01
2.031300117438872288e+00 2.173129583999198289e+01 4.297793765412328781e+01
5.879012583567488548e+01 6.799422956496792381e+01 7.187798741549976000e+01
4.684560824989702610e+00 3.963556473715046380e-01 7.695272052214052749e+00
6.604533578709283859e+01 8.754557674785878874e+00 7.601608254807453591e+01
2.666196558329086841e+01 8.948945453362333069e+01 9.955208884478494724e+01
8.880072195934541668e+00 6.194696681387144821e+01 1.100022948313803539e+01
2.653965316402554464e+01 2.080834441063263895e+01 3.192142708244828242e+01
3.861088708412188453e+01 5.199558900986205146e+01 8.000677943357064237e+01
5.493319137645286077e+01 2.009470338652200638e+01 7.960843160662140860e+01
9.141071626465857491e+01 7.388803073191004955e+01 4.500439008101508875e+00
2.351699212681548445e+01 9.823956356387127187e+01 4.710868956190705603e+01
6.609027334709263357e+01 2.807318561505468679e+01 2.776538171570530622e+01
3.357140710335298905e+01 3.803620872230442274e+01 5.941726789994946500e+01
6.371463699439212292e+01 2.710038761808223384e+01 2.223901328062748561e+01
6.064553268541229869e+01 4.056048566551839762e+00 2.938545714794815744e+00
1.108960427680499805e+01 3.241993803243947703e+00 9.243519390115010026e+01
3.784995337821733585e+01 4.301650849342964733e+01 5.894589734018740756e+00
7.823595645153454825e+01 8.715244729592563999e+01 5.084857717500500485e+01
4.562366654872095495e+01 7.428059754530275427e+01 4.599662710272458810e+01
9.873206274508592628e+01 8.016531000131831775e+01 6.895936168608828964e+00
9.465939568802374993e+01 9.287359190726121483e+01 2.235083656197779334e+01
3.862906203573657216e-01 9.185115854313104933e+01 7.621303825047786518e+01
1.639297204673035679e+01 3.421453325458823969e+01 1.991066419383855646e+01
3.837638270010401698e+01 8.493581982650138684e+01 4.174314880758289803e+01
2.212596863033019545e+01 3.166922111999982548e+01 3.021608403587099190e+01
3.967540928051729310e+01 6.603390726777021769e+01 8.436079047840540568e+01
4.723741659120038605e+01 5.365825032337269107e+01 8.654035277392851810e+01
6.644517340559737306e+01 6.068874478504235981e+01 2.714964583694495914e+01
2.921790571440902085e+01 8.840288203119818888e+01 9.700185706216015546e+01
5.662004867184060686e+01 2.393038193037248007e+01 3.232750029348827780e+01
8.392682425046061212e+00 8.779266080903515501e+01 6.973293140832636539e+01
2.837314216861063088e+01 1.361855664240357910e+01 9.277453891208041625e+01
2.719361335569185911e+01 3.257049634589392895e+00 9.330803109472859092e+01
9.819649078646607165e+01 7.104603419801185282e+01 9.957839479577054931e+01
5.801301857320226674e+01 1.035895477191120051e+01 3.627915940800407668e+01
5.861727895696723323e+01 2.185191544955455001e+01 9.085147673463119133e+01
2.538403836709048988e+01 3.536102334683049975e+01 1.779099696348798076e+01
2.349878270875474939e+01 1.928601679552223302e+01 8.826041389108794988e+01
8.444727492683058756e+01 6.119620605308648464e+01 2.215498932289026257e+01
1.228200557043092012e+01 7.703718758726860472e+01 2.652283092174911872e-02
5.202109131573062761e+00 8.612494997546399134e+01 9.678888844144717396e+00
4.250761020198259388e+01 3.687513502839123447e+01 2.212761257416364558e+01
7.400869031615165738e+01 4.248099220872465764e+01 3.961591161586815701e+01
1.933823943001089418e+01 8.390120290604178876e+01 1.111170591290427900e+01
9.642401987307751199e+01 4.636183576320362931e+01 7.499362945818923265e+01
8.633805046624566160e+01 9.810394950745447318e+01 9.599186504255270336e+01
7.572098003551846546e+01 7.740444137378727874e+01 1.102358624894859140e+01
3.542272820201753802e+01 4.380471668731309620e+01 4.051530332401497958e+00
6.550319002556652492e+01 7.619818007193134690e+01 7.934994470413093026e+00
1.996429787317166582e+00 1.610732178515779012e+01 5.193043983546795772e+01
3.274437830284826134e+01 3.976645727026875932e+01 2.354305744751644625e+01
3.690165068297612816e+00 2.708369873968392483e+01 8.772883737306341345e+01
5.687631604813277875e+01 9.248931979590389574e+01 1.341203487290265617e+00
3.726050165658472224e+01 1.613265030415145240e+00 4.643121624929418090e+01
2.581283718547186012e+01 6.159762466732934172e+01 3.884342658470760767e+01
1.694939551720094784e+01 5.860746549011973627e+01 1.603238187880737797e+01
1.432031410615169875e+01 4.566633518781916479e+01 5.596343662021794074e+01
7.089739449583881026e+01 1.157493060726777490e+00 9.144402446039160282e+01
5.734523629348351648e+01 9.482108657242277161e+01 4.416353741501642816e+01
7.126354450778956107e+01 6.983984125327083348e+01 6.631173828838419126e+01
8.084509143838783984e+01 8.398277602574044209e+00 8.808565834476813450e+01
3.448670248995523480e+01 4.313361582936914296e+00 9.814149742699879653e+01
8.344742278768606525e+01 4.397991576941932124e+01 5.674513284723501272e+01
1.348249558828695793e+00 7.710668181719691461e+01 7.085607170450202830e+00
7.977368862339005773e+01 1.365014775832657001e+01 8.743557105314543776e+01
8.574715822551563349e+01 4.188306114243695077e+01 7.003268478565637167e+01
8.906315683506049652e+01 5.191541870514736701e+01 8.436769022211979063e+01
1.155857526493331289e+00 1.304427963096246401e+01 5.650699298615336374e+00
3.292672236598201607e+01 2.238331577825848484e+01 4.860448069086042011e+01
6.743310522394692441e+01 5.536043356459504849e+01 3.677885381578170154e+01
9.714357993473143438e+01 1.336323909193044557e+01 9.361146124586437622e+01
9.732206512320186675e+01 8.690670374535517340e+01 7.839373656876601615e+01
8.318770265784422691e+01 1.323313318776337866e+01 5.165837209287390408e+01
3.671275085092886314e+01 7.745111571141219997e+01 5.135101261490883928e+01
7.594076647485233877e+01 8.699921273779057174e+01 3.278175411710414267e+01
7.392999846704208267e+01 5.993695008350252706e+00 5.652919505630554653e+01
8.258529398445276115e+01 3.962953240122057963e+00 5.335199303159302531e+01
1.639759170847347036e+01 6.717521361736552876e+01 5.157668812127651847e+01
9.505765942242562971e+01 5.016936201499069625e+01 5.596420619435803445e+01
5.160665027800170890e+01 2.897520675895825093e+01 1.266647655661242666e+01
7.382808286161588285e+01 2.687128224835007018e+01 7.847535988903393900e+01
2.466958695080956332e-01 9.863046264610120772e+01 1.960869796958985134e+01
4.417106401488333489e+01 5.043904514163671848e+01 6.581873404768479929e+01
6.371225171318120317e+01 7.699129432063359957e+01 8.516621501840695885e+01
9.219083644726185867e+01 9.660870019742124271e+01 6.901983718639434073e+01
5.443545926207050911e+01 4.625492300628706488e+01 8.828158957160255227e+01
7.100975895126460102e+01 8.838548085105001917e+01 7.848866754999805906e+00
8.770072737335367208e+01 6.894648176095562064e+01 1.190919616569374728e+00
3.127078732575837705e+01 5.607753004873073266e+00 5.793433963659669672e+01
3.284345215851591782e+00 3.748776254985829581e+01 5.011242562695937863e+01
5.113832353945642950e+01 4.915485240055769367e+01 4.033489618534174781e+01
2.880255659363396603e+01 5.549897706118807861e+01 3.382960350241108927e+01
1.537669107906866017e+01 6.247821072162360423e+01 5.037110372503637024e+01
4.719924191765538524e+01 2.085696936376816168e+01 1.036936779566006805e+01
5.602583264957697651e+01 3.936290844654871535e+01 7.553088319012458030e+00
5.068830073326480345e+01 8.870702536889785961e+01 3.786524648152305161e+01
3.250646808699853096e+01 6.202691227246153005e+01 5.527829699508867378e+01
6.097394841943449961e+01 3.244430798562072482e+01 5.653810321852964194e+01
5.564583338446510652e+01 1.039232097246531872e+01 9.209403745710798717e+01
7.723631443008153497e+01 8.878031094711698756e+01 6.205735214846374248e+01
7.345200790843703942e+01 3.187394714688906916e+01 2.542962701655332580e+01
8.926357277283157998e+01 8.825279539932900263e+01 6.902037172026723510e+01
2.488081886955813005e+01 7.222306316655591729e+01 3.584941467037311469e+01
9.348529610535737788e+01 9.841078562779691197e+01 3.157175349689464028e+01
3.190852093870957162e+01 3.349184959511808390e+00 4.178583425896962211e+01
8.842046709384838721e+01 4.450400673911003580e-02 2.735676828823193674e+01
4.870387954079825477e+01 7.353640469434658655e+01 5.974396025313943426e+00
1.128896062822648538e+01 4.139011168430440080e+01 8.214419731199647856e+01
3.133725862100977722e+01 7.906408786704942315e+01 8.900106399667023993e+01
1.679711794323857177e+01 3.654873542927039409e+01 8.920475302356632596e+01
3.220247241814389039e+00 7.633590953467533780e+01 4.412550811035790588e+01
9.823416930536621905e+00 4.081322753838188788e+01 4.486435931603104166e+01
7.388324122315856357e+01 6.190338422203388546e+01 6.047623200826119927e+01
2.148188386883112955e+01 4.465588127704387489e+01 4.791767403459601127e+01
2.887217688584894404e+01 2.180506113428603143e+01 6.863839484991912343e+01
6.726505229357900362e+01 9.892560362215897385e+01 4.049988998749402214e+01
1.886225091529194486e+01 2.428557347022258739e+01 8.794231355896293678e+01
7.994424353838780917e+01 3.431225218187630333e+01 5.134382928087926246e+01
2.539980103430584535e+01 2.769868977379904607e+01 7.125852554746094825e+01
2.329399613749333398e+01 1.010515924571675583e+01 8.639075281159668407e+01
4.636451090492210270e+00 9.566087905742263331e+01 1.593618772072404965e+01
7.686264798200913617e+01 8.712132017518274552e+01 7.961961962895189515e+01
1.324810036670355196e+01 5.217011217781079324e+01 6.485967932020059834e+01
6.404547148360367714e+01 4.690728654876061654e+01 4.847555947650549868e+00
3.173684195132901920e+01 3.735412028136043716e+01 4.404459009314307849e+01
7.968397729247206485e+01 7.904907392853226611e+01 9.221641777895925429e+01
9.407215631572503867e+01 3.622594729758472454e+01 1.177850926485015748e+01
4.037858488055501738e+00 5.231260014232999112e+01 5.611450761160906353e+01
9.265503153877033071e+01 7.742681909533708051e+01 9.303802674017521213e+01
3.783964791943957806e+01 5.518654192787323609e+01 5.462049144366348941e+01
7.295413198404384048e+01 6.276607394931810191e+00 7.664912546105854574e+01
3.122339665405749898e+01 1.105425113659663783e+00 4.837896826042864262e+01
1.745450059026261158e+01 3.879223992932291054e+01 2.560740895324209276e+01
3.498228170936239678e+01 6.990345168892100958e+01 5.915548321329799109e+01
3.591498906019820225e+01 2.590071978803768360e+01 9.803817467166791744e+01
9.862100662951006314e+01 1.989398240025164100e+01 6.171074761603225767e+01
2.255053233574520988e+01 4.832885340458015122e+01 7.470405173699257162e+00
2.398669562253575904e+01 5.847516414663495254e+01 1.293307911226232498e+01
2.456916073297943370e+01 9.966265180906653143e+01 5.051800017327246195e+01
1.941879847524463543e+01 9.503764214291033241e+00 4.957777386320992719e+01
5.983223335105740404e+01 8.324975820263480841e+01 8.624978760566949632e+01
8.673761292009228896e+01 2.411144483361752222e+01 1.117882911172707239e+01
4.318274954723379011e+01 1.451496756221439810e+01 5.842907801683799107e+01
6.243902479899111313e+01 1.213325988805664579e+01 9.687106269209809284e+01
6.906808710233592308e+01 6.275409379489438066e+01 8.551116286020391044e+01
5.275125864357536187e+01 4.051339703394024383e+01 4.629164303947172954e+01
7.732182144503340737e+01 5.797197130225684170e+00 9.549359546256836495e+01
3.267524518664656341e+01 2.510287900248967574e+01 8.812296482909847839e+01
9.358590196070414891e+01 4.658201447630258940e+01 9.909350900949544894e+01
2.797991459715719742e+01 9.639628680617900613e+01 5.860979593885717875e+00
3.056919694567746859e+01 4.547942679629041152e+01 5.607933876905507731e+01
9.665718585158806775e+01 2.120424972356083071e+00 6.283719377741486767e+01
1.348734745178078498e+01 3.517553354544597966e+01 7.732197314862024484e+01
9.878889969519775605e+01 8.946666542865622773e+01 6.773105305290137323e+01
6.399018519534551785e+01 8.019910886664202110e+01 8.332296925345784189e+01
2.220394666745347934e+01 8.775040516342900787e+01 3.710453010049493372e+01
2.182724508604466607e+01 8.549903311269743256e+01 6.831224162906906372e+01
2.202166444127087175e+01 6.933139850940153792e+01 6.630411702167491228e+01
9.620151877694397058e+01 6.403569740113871944e+01 3.534837095047075195e+01
2.161819775994609927e+01 3.465043067679006583e+01 9.689868107355334814e+01
4.343276902587516020e+01 1.260895068889310622e+01 8.867046715630000620e+01
5.672300969632579637e+01 3.099174821953119974e+01 6.788356924074216181e+01
5.669044658393565328e+01 9.931593927505446118e+01 3.093582009568690694e+01
6.931019105725148677e+01 9.025791288469517326e+01 5.301352790797979253e+01
5.001615499356161365e+01 2.384612427605290463e+01 9.932818740527868329e+01
2.613995485645970263e+01 7.973848865853348400e+01 5.285585542575941531e+01
4.089703640725561584e+00 6.399292486789460810e+01 2.563508446636414462e+01
4.263290339739022983e+01 4.163642056703215388e+01 2.073418393128017101e+01
7.790238402597134382e+01 1.099478749958074886e+01 2.256281350458816348e+01
9.378939829635202230e+00 2.196426572281934142e+01 9.071479149242267681e+01
5.846475934791873641e+01 6.102452945000731432e+01 9.741647268456419795e+01
9.181110618404427726e+01 9.450934095608575092e+01 5.413142231412260230e+01
6.099122527509506142e+01 5.617576705133727444e+01 7.623223196496574872e+01
8.789294828462007558e+01 2.184427474244651179e+01 2.294471906757585700e+01
6.008779334932927441e+01 9.796300214103835913e+01 4.246668188631973351e+01
1.178968699908871187e+01 3.594157860759064960e+01 6.122519144264544622e+01
1.508975831065573203e+01 9.120748243024910096e+01 7.397641640454128265e+01
2.199768365541634552e+01 4.405674111390896996e+01 7.607415187499570663e+01
4.444862931052950827e+00 9.995711841891740335e+01 8.706462133453341323e+01
9.239596792016314453e+00 7.009933300457656458e+01 7.632658034074682973e+01
5.578509206953079769e+01 3.732047610255789749e+01 2.034633040380777658e+01
7.229564201598128648e+01 6.118173829876405456e+00 8.657329310597380356e+01
3.996204755236772144e+01 2.742666601180269126e+01 9.592165435740855628e+01
8.524067761144972621e+01 9.303128120796735345e+01 6.006732872855332772e+01
4.826508800353411743e+01 7.976485744250982179e+01 6.612817765485630161e+01
6.841901467871379339e+01 3.522835576150856696e+01 5.910797427167801743e+01
4.241454078020900909e-01 6.791440839305299448e+01 3.925137381097302125e+01
7.155162220333248513e+01 8.907993977446803058e+01 1.268806505768255199e+01
9.104552396506204737e-01 1.195019252177423930e+01 2.005999625414148824e+01
3.601680485391531050e+01 6.613213371330695090e-01 8.379264566277204551e+01
3.125954141874189673e+01 8.773371561593225465e+01 8.538128804837249675e+01
7.150920467125241942e+01 1.660605878756423692e+01 9.760545920404479148e+01
8.142741910649561987e+01 3.768953491866674455e+01 6.369044646049792924e+00
4.302207638662955702e+01 4.029292671127997494e+01 7.761035281187692192e+01
7.187701604511231324e+01 5.340983257672580464e+01 2.387509114444683433e+01
6.739208337611124477e+01 1.483983494830961547e+01 4.989202970364442535e+01
6.248534047547107662e+01 8.161284808066170626e+01 3.806781668746845781e+01
8.138149508866743531e+01 8.660996972721561349e+01 3.368365692268444889e+01
4.374575904444609620e+01 8.513612494953689236e+01 8.257133785967786821e+01
4.230781213854164235e+01 8.954283523003712730e+01 2.658079436179638932e+00
3.169349730056737613e+01 6.906341218956507078e+01 9.028159844161399405e+01
3.195375739152225236e+01 5.161179301208161974e+01 8.757604565717734602e+01
3.906821458624192189e+01 1.064700723683970018e+01 7.192442115867800112e+01
1.315096678907734518e+00 6.593455311447377198e+01 5.436706137150030571e+01
9.559013379222676576e+01 7.148671803643374290e+01 3.756429864060986290e+01
4.969620368213845296e+01 8.805855063740543187e+01 7.447487530764453822e+01
3.617543685569712952e+00 3.027708721821237248e+01 6.931321521126506013e+01
4.197418294841548381e-01 8.524364175824777590e+01 6.285842642719948969e+01
4.743629615310827319e+01 8.233648450978731148e+01 9.876395240197840053e+01
4.836261245384429941e+01 4.536729377057483248e+01 6.458754801229095222e+01
3.416588294082533395e+01 5.068091149937203710e+01 5.880371602462727054e+01
3.015275695871919481e+01 1.533217388766945355e+01 7.791166451092001921e+01
8.365420255577664932e+01 7.651771318343108419e+01 9.644415508919929891e+01
2.784517232305053724e+01 7.537000011535484134e+01 1.753639302580011261e+01
4.588425141113032879e+01 2.968058870520838965e+01 8.694263025008341472e+00
2.140452540869894804e+01 3.834948212390164457e+01 5.891968709192263454e+00
2.725872430675219249e+01 6.167471237198902401e+01 7.696462589926727560e+01
1.696114600998958011e+01 9.148877061144146694e+01 9.800616716401934525e+01
8.954881419309016621e+01 8.149567884001884011e+01 6.461474932769051804e+01
6.082796672182799824e+01 5.721721654185737549e+01 7.280231726827437910e+01
1.602630391445935132e+01 4.992260737035483231e+01 5.371566891213902295e+01
2.085585377151031139e+01 4.082678670523969089e+01 6.459904961954276814e+01
8.456490633636560972e+01 7.164130231385729530e+01 6.985322586977221704e+01
1.083623158174330570e+01 8.406362117119049060e+01 1.015235365985052240e+01
2.905002812551357039e+01 5.214827855084111263e+01 5.556555570640422559e+01
1.814458806421414039e+01 6.716827165145915046e+01 2.922047603427111540e+01
6.088349624655358383e+01 1.432745215577762110e+01 1.336496233618106366e+01
7.481511771121056142e+01 2.363409592893794908e+01 9.906520358464725007e+01
6.797963873736559037e+01 4.016402897832460184e+00 5.928648067299467073e+01
7.260162720149970994e+01 6.033300993329471140e+01 8.409853696943160628e+01
1.368083159475108612e+00 1.374325435932147776e+01 7.402066391048242622e+01
6.748375999706451012e+01 9.110345265874055087e+01 7.934686532362626110e+01
3.748130590754705782e+00 7.702115192501290508e+00 9.892706468428968947e+01
8.867330693967949173e+01 8.194918494698295319e+01 5.130624033534506623e+01
7.333600941378280424e+01 8.676353989392845278e+01 5.125560512895132348e+01
4.952971549435339682e+01 9.210829509523728120e+01 7.507231666058761732e+01
8.061041747132684065e+01 8.864167107943784174e+01 1.986965687212425280e+01
2.277016914499257894e+01 7.909941165101255933e+01 1.628124666101715690e+01
2.791305152872788398e+01 1.371277704247556528e+01 4.853562156634436775e+01
5.072172278673750867e+01 1.712747304233952494e+00 5.125401960793837475e+01
5.545003625372329026e+01 2.190150892456982490e+01 7.098932864482866023e+01
1.782223490670695654e+01 7.207038446276712307e+01 8.211245438457673629e+01
6.333561370306539828e+01 1.015861070189263415e+01 6.799317701265698588e+01
8.258763686054241759e+01 1.021681723218267379e+01 9.398613784044303543e+01
1.713160810693037206e+01 3.323432500650434207e+01 7.275537037237702975e+01
8.424415102098249974e+01 5.188986700430444898e+01 8.740560843055854434e+01
1.527214111525991846e+01 2.817330596170980428e+01 1.309728954496206477e+01
5.168704625208507508e+01 2.309236010181481280e+00 5.111576552445586685e+01
5.930941879424117502e+01 4.372002338734003501e+01 4.678888546219898359e+01
7.185527768652507064e+01 3.584542489647818542e+01 7.168321500184626416e+01
8.204804424432055043e+01 1.842914043124566081e+00 7.661548517739383612e+01
2.338160364703607641e+01 6.888653114055703952e+01 1.976680156770715868e+01
9.575083792674820415e+01 5.563330864637874384e+01 3.907970729656440323e+00
7.732252812220245630e+01 4.867321371825637755e+01 5.243409054182559714e+01
4.412682316724624343e+01 8.049452705847211575e+01 6.343634066899128499e+01
5.815332600891819226e+01 7.448946832616388747e+01 1.929165346259409386e+00
1.884895596332415479e+01 3.704310930653419121e+01 6.746702984182216767e+01
5.459054258156330519e+01 6.575217480455952668e+00 7.129018552179377366e+01
5.095999443488978642e+01 7.241419993791569709e+01 1.522371567606674070e+01
2.930764617505110436e+01 6.984837691839719298e+01 3.401194713880223475e+01
5.899070096056361479e+01 3.856511502950896642e+01 9.450112977262371317e+01
4.132898697805794797e+01 8.820995056272755619e+01 1.677386301790334500e+01
5.778619914973497629e+01 1.044565337767460278e+01 3.901640535674369659e+01
1.314779302443448472e+01 5.536586504741867287e+01 3.240058818888466163e+01
5.493684993065178901e+01 9.168254982286072163e+01 8.104892287929665429e+00
6.323532652543414656e+01 8.446957327536890148e+01 4.603771948017766391e+01
5.825661802198668227e+01 7.939467616441940834e+01 8.511134908915384756e+01
8.790848462978378564e+01 1.397429878819045346e+00 7.365922796723444321e+01
2.677192297040871338e+01 2.950015082375506736e+01 9.512798652070492267e+01
2.249283972149526178e+01 2.889701430537671101e+01 2.845419500085996134e+01
4.791233777570032970e+01 9.828549266256432304e+01 4.048211961501979772e+01
8.596718012670140752e+01 2.378314871615789627e+01 5.958322877153980812e+01
7.230745417508768469e+01 3.828335195514603129e+01 6.341837544371009550e+00
8.233413977512904935e+00 5.508809990886143204e+00 5.016007785873871683e+01
1.486885940789198735e+01 3.961002933636375190e+01 9.071367926084938915e+00
7.287999979457758570e+01 1.103604595294972412e+01 5.000200557712391713e+01
4.909848702877476967e+01 2.664114550333828291e+01 8.988225745091895647e+01
9.876255418183538382e+01 2.131782231614553069e+01 2.240029601387082536e+01
5.633252042867352571e+01 3.000469273656206681e+01 3.772294066654838929e+01
1.890773588423222407e+01 3.105318270458226237e+01 8.007498229445053539e+01
4.099871008436044661e+01 4.958330221059544840e+01 7.304653823631906562e+01
8.662510244494757217e+01 5.965814588008949926e+01 8.153213583943340836e+00
1.856208074058273283e+01 5.627660963961400142e+00 2.079248638284858508e+00
4.690327324660299269e+01 7.964348167108445864e+01 5.841228973468492569e+00
2.615924452775893982e+01 1.666401297974804407e+01 7.809917386110069515e+01
2.636874710523625609e+01 2.167104839980522613e+01 2.401602954867828643e+01
8.549307644338063028e+01 8.781424741083088747e+01 7.650217419198341418e+01
3.825737827801773960e+01 3.827831141660377057e+01 1.251464726465474442e+01
5.082656127975651827e+01 7.194189005488479438e+01 7.114221661661413521e+01
5.863557547205780907e+01 6.129260989570395779e+00 6.583137306527187604e+01
1.797231255171407582e+01 4.811522695943337879e+01 9.038441046058900952e+01
7.381002350578789617e+01 3.150573569666250506e+01 1.224347748460766816e+01
5.350398124278442680e+01 3.743265639404527434e+01 9.006175570016283771e+00
9.412531767985102249e+01 8.093904714900881459e+01 2.568699257974985528e+01
4.135372202980028078e+01 8.898646026634695261e+01 9.290060834991265892e+00
4.519692255708280015e+01 7.347501368984706005e+01 3.181395603941017391e+00
7.495063986557626379e+01 6.997323340310418871e+01 1.743324037996178788e+01
3.760441515361429765e+01 7.381900176957549320e+01 6.881991233872521718e+01
1.158318519731535901e+01 4.052742278401679954e+01 7.585299354818364037e+00
5.057834699045196203e+01 6.259430245772333024e+01 7.416425457905532426e+01
8.917484854364976954e+00 7.852591407128306855e+01 2.306990738630049265e+01
1.325166257284722349e+01 7.382048966220267516e+01 7.520352135435716434e+01
8.067786092017837518e+01 4.311085497952833379e+01 4.313922201051513383e+01
2.795486129202129355e+00 2.832955209308176592e+01 6.979675103198958652e+01
6.221366049147025734e+01 9.662879358454478762e+00 8.541884155698782877e+01
9.927013633222198052e+01 8.396523695425806011e+00 3.648710482283296130e+01
8.022933721669394913e+01 1.692950684058206434e+01 2.546694133442742825e+01
2.342625846656247646e+01 8.697523820398826899e+01 2.795102835824965126e+01
2.168409166202300842e+00 4.511988989215159052e+01 2.647811855226445132e-02
6.779266612106655998e+01 6.655193925239616703e+01 9.570365262917952975e+01
5.124547832885001242e+01 9.556772257003662219e+01 2.224304807281913909e+01
5.502620133380550271e+01 2.736520354315237213e+01 5.799744361909507973e+01
6.649274499481716560e-01 1.211886564934461319e+01 7.338789652597240831e+01
4.808860269308621582e+01 8.715618609946851336e+00 3.089321161335061205e+01
5.108978283061107106e+01 3.255351011670444450e+01 4.966183865859093061e+01
4.677353109775901174e+01 1.000090847297072649e+01 6.231183036558164190e+01
4.791746151019508204e+01 7.579944183525097401e+01 7.123777169131230380e+01
9.944206341611570110e+01 6.717776580689940147e+01 6.991720045397687500e+01
2.763939789566949301e+01 6.919705613876004691e+01 4.710827024187111078e+01
7.399986524952470290e+01 1.431074065102371229e+01 1.316202125278069701e+01
3.926528718704066279e+01 8.772577956251372200e+01 8.357120361154504451e+01
9.126417735310772628e+01 6.020468880581996274e+01 4.995512005531374911e+01
5.218523354924422364e+01 5.210887458516732096e+01 5.669455500982500951e+01
7.309407526449551540e+01 1.070924965835661169e+01 6.789105096888759761e+01
4.312606959297451681e+01 5.422657406247554235e+01 3.237878653127965833e+01
9.171813796763844095e+01 4.972461282882403566e+01 1.964913911938306512e+01
9.237239733090557081e+01 7.001425711214648295e+00 1.662668093451202722e+01
2.541141736814931562e+01 1.410564683553997511e+01 8.106323183193666182e+01
8.808081509716578239e+01 9.461828256453124197e+01 7.079180917084394764e+01
4.692290295161895131e+01 6.374755496272481992e+01 1.021972381126330376e+01
1.638498594538301134e+01 5.619829405014705515e+01 1.816473293095954844e+00
4.757919644300370265e+01 7.757503047273888797e+01 2.753686161167469137e+01
1.391284611454055664e+01 8.845188079630604250e+01 4.439725007763244236e+01
7.933752519808760439e+01 3.094864885045413061e+01 6.617603833141272673e+01
5.306568487887330932e+00 1.849144356464752548e+01 2.295350023231947745e+01
4.680883508389813841e+01 1.034593433716828415e+01 6.593295865878734219e+01
1.084751098814702530e+01 2.453095743670674622e+01 6.103913265839231173e+01
2.396184811466542897e+01 2.145915654572086950e+01 5.494045864957256242e+01
2.596798888690912221e+01 8.858390119931995343e+01 5.294409985674979424e+01
8.539102899041816386e+01 7.915167652754890071e+01 8.121739902617936480e+01
7.517236518287205627e+01 1.775953049150751184e+01 2.856563249353032319e+01
8.168195398966952325e+01 2.283237992462947474e+01 3.952703852638864390e+01
1.500738594570750806e+01 7.620538083986160416e+01 8.346773080624498675e+01
8.730440073901027631e+01 8.286162578659447320e+01 6.716979192230489559e+01
2.332991700226072496e+01 1.934094689988020832e+01 9.548869122418224720e+00
2.549102915604894992e+00 2.994175635818454495e+01 1.969256283452388701e+01
7.152816471573216006e+01 6.369002097301599008e+01 1.847900793633742111e+01
3.326397392293709743e+01 5.167347064499318776e+01 8.703636198713884653e+01
4.562981032576986706e+01 7.459003924878788894e+01 2.688350157248135019e+01
2.953377855391173767e+01 3.846468929188875308e+01 1.254422667664492153e+01
5.353424750664099463e+01 8.780888191353814420e+01 9.571613458904971594e+01
8.256623564066799759e+00 8.230911767307915738e+01 2.733649296967773878e+01
8.048228813820713867e+01 5.438265019622612328e+01 2.721951981396354370e+01
2.579898126899201571e+01 9.792838511404859503e+01 1.140576804843207448e+01
6.415675687020029727e+01 6.378775761263547395e+01 7.713944771158469393e+01
7.799276397313448683e+01 1.351491490637858384e+01 6.277287056273629418e+01
9.752580593739229187e+01 1.528848076558353419e+00 6.856219804323191624e+01
7.684064479465088482e+01 3.661003141441663189e+01 2.280085974409906768e+01
2.456539650913701678e+01 2.734709339473614520e+01 3.577090897954694526e+01
8.651363720731166040e+01 6.534275307705688363e+01 7.301420849103499222e+01
4.075723200162624238e+01 6.186413707301161935e+01 6.045320696551163309e+01
3.191231574726449693e-01 4.618946822938951868e+01 4.818241536979596162e+01
5.358160423223073821e+01 2.935417384439783461e+01 2.231923703250817681e+01
1.342690598325434514e+01 6.267879153998925545e+01 5.201391502368510089e+01
7.359015622775921805e+00 5.844012753040856012e+01 3.775529831904847811e+01
6.414785761214757542e+01 3.993970934253376726e+01 4.562386519281648134e+01
1.331806910040920222e+01 2.177158365739517620e+01 9.839225424338184212e+01
3.544305438924153862e+01 3.837425497012492137e+00 4.621265423277230866e+01
6.360961290493360565e+00 7.085310724240767577e+00 1.269819560924441149e+01
9.466581674437659899e+01 2.944018336601782337e+01 7.156545330308730968e+01
6.049518284705065696e+01 1.540651503612656725e+01 9.609988947851762475e+01
6.522892471259952174e+01 4.123758517586987438e+01 1.035992282540300025e+01
5.258465947506506666e+01 8.166051368930726539e+01 8.335815720429326348e+01
7.371831388204243751e+01 8.977525172316737212e+01 6.707322391121485339e+01
9.983943774244771419e+01 1.042492922248473519e+01 1.501371106510818265e+01
8.919118083062448932e+01 4.004143576030407559e+01 3.399427449533239809e+01
3.816585588302607590e+01 1.414093460171232941e+01 6.721815611643243926e+01
2.553719626318728952e+00 8.964608582179391760e+01 9.964407181261199753e+01
6.043995488835252061e+00 5.355774808093899253e+01 6.138369989926817283e+01
4.177809171669776944e+00 2.626766232154442715e+00 3.714319306251551467e+01
5.217763481486730370e+01 9.758114189786984127e+01 8.864900821722247315e+01
6.080901666523347160e+01 3.642286738198838947e+01 5.907300155150711873e+01
8.688800056192461341e+01 3.602030617375060473e+01 8.973333618766874054e+01
7.254507232399211603e+01 3.812361634318905601e+01 9.603222632623815969e+01
5.028293441577991985e+01 8.184908161921964620e+01 4.146226536274846097e+01
2.502228808766933099e+01 9.306419457737503009e+00 6.801863062515050729e+01
7.506772154077168580e+01 6.919445623075310436e+01 7.703228717772685741e+01
3.029112599042411702e+01 7.679433350844404060e+01 1.558438104502752886e+01
7.238360983321682340e+01 3.616517161241239364e+01 2.619449139527528914e+01
8.379510606735408373e+01 9.246219084365623075e+01 4.445806734941569971e+01
5.782510177348383706e+01 4.893613994000605061e+01 5.097925406349579447e+01
5.250197170307008321e+01 1.064159108570583712e+00 8.707230947343886385e+01
6.481619839441489717e+01 5.192212891607172764e+01 2.974445867795702014e+01
1.152409225706189133e+01 1.577189836545351831e+01 3.063793435438579849e+01
4.837677545750432984e+01 7.690912977530850014e+01 8.556746489375524334e+01
7.970753443665546456e+01 4.156466251045642935e+00 7.107749731014287420e+01
2.474301538395213740e+01 7.210885650289579019e+01 3.853454007007319859e+01
4.038996523639292491e+01 6.314024883673348398e+01 6.260148279538504568e+01
6.943431968921120756e+01 2.398789501279414793e+01 8.234929407083599529e+01
1.370222959256953743e+01 5.487212981598488248e-01 2.266575339915228682e+01
3.645929678117026640e+01 2.392067297139812609e+01 8.092811080466044871e+01
7.208727878682461210e+01 8.548558975120580783e+01 9.524531067944990070e+01
6.980751826547179917e+01 3.839963981009254468e+01 2.299521442455687570e+00
3.594623420384559154e+01 7.906798734433598952e+01 4.559016054664033035e+00
2.851431236608490494e+01 4.675527914545675401e+01 3.644282560744676402e+01
4.847396905391993016e+01 3.855719177713039869e+01 1.864701856000736768e+01
9.624835560198368967e+01 3.115124913065653445e+01 4.235490057386764562e+01
7.069806766596346392e+01 3.172236495352628438e+01 5.771833640083811900e+01
5.728866027905572622e+01 3.470102905298414697e+01 6.502335925477601108e+01
2.576103683084962626e+00 4.677845952840358024e+01 8.812066077763276439e+01
4.259354206293077993e+01 3.957138269775387585e+01 6.451152945016562512e+01
9.478666000679081094e+01 6.527947667518766650e+01 9.806946173830517921e+01
5.505110228701265385e+01 5.278492307733455391e+01 6.193975473898218098e+01
7.793161664468925665e+01 2.473681656774001780e+01 4.976447857292784249e+01
3.688673990424149451e+01 7.344509460683723567e+00 3.769849001299182589e+01
6.077456570244731182e+01 3.916812693359833730e+01 3.193539258721017760e+01
2.268729038938707276e+01 5.064063665445777218e+01 6.183766571370875909e+01
4.267807208150619758e+00 5.399563048345024185e+01 4.930976348533035747e+01
2.370725624227859640e+01 2.779906948538963718e+01 4.470378688837910630e+01
7.931253829650509601e+01 8.498831237750006551e+01 8.961546342796221865e+00
3.647635854499144159e+01 4.016648659495658791e+01 2.698503130980264331e+01
7.898585665768510466e+01 1.519944989153241366e+01 9.732811747233778021e+01
5.759412825456462315e+01 2.548925836344726292e+01 5.889635544805962297e+01
3.946988235492150210e+01 2.694546513177131786e+00 2.294393025504588479e+01
2.475455393359685630e+01 4.267592362406540474e+01 9.718330832151465870e+01
5.648962700679010851e+01 3.690651453621818234e+01 1.720432779041345484e+01
2.252053459915352818e+01 6.151349151113497982e+01 7.476673042332259911e+01
2.603707414182330382e+01 8.880754912122500855e+01 7.252050350364925180e+00
7.516278921124408541e+00 2.029531897766175774e+01 5.035172305118901193e+01
6.025682839988015616e+01 8.202824036023224608e+01 4.195651231029641082e+01
5.611620495809555820e+01 4.378139265023298776e+01 8.367460254148149090e+01
1.476277022911468606e+01 5.307166135495100079e+00 4.233729875953306632e+00
2.050823691649135228e+01 2.183963917789805009e+01 7.144633740303608249e+01
3.092644800709329900e+01 7.834726398379974910e+01 5.109830896316334048e+01
8.678076265342366469e+01 4.083730818995250189e+01 6.534289006921336806e+01
7.741283507761524163e+01 6.804760588920946418e+01 6.901152455774284533e+01
8.295259158359665719e+01 1.024689230326064582e+01 6.893629892335917830e+00
2.322628896416438948e+01 4.639463842007762295e+00 7.764604358941936368e+01
6.786188485140874604e+01 8.157901291478930617e+00 5.917123996856092560e+01
7.321809485121232797e+01 5.950062606896636908e+01 1.436706203736515253e+00
2.818936411011040377e+01 2.177092843178496384e+00 9.848181557157103327e+01
6.467367801511458936e+01 9.515257792518157487e+01 1.996819862223141584e+01
4.865743162895781637e+01 5.960404285656652945e+01 9.727141356164904096e+01
6.897471227892511081e+01 5.377242129691977368e+01 2.771648007936483538e+01
1.931214803171631544e+01 1.480240940343526823e+01 6.913098021685715189e+00
4.731150558317520627e-01 6.763561958137653818e-01 7.223265532786446386e+01
2.083964684510627308e+01 1.456598032612759219e+01 3.552288668233460811e+01
2.516322156906539576e+01 3.214572643008871466e+01 3.962304815734439956e+01
2.395656810221871069e+01 5.192821974512201422e+01 5.695118767880407518e+01
6.011237468431775000e+01 4.584184819758409191e+01 7.374544900341084031e+01
5.563654764253522345e+00 9.595068823390005264e+01 6.434900232379577290e+01
7.929862129539053228e+01 5.223482474184840640e+01 8.019186960735514447e+01
9.689448323979389954e+01 2.912803008434572405e+01 7.414577813322679845e+01
3.424589367645856441e+01 9.631682446820073551e+01 7.755974344484415894e+01
5.344658856028060256e+01 9.803396848082478243e+01 8.322338328717773948e+01
5.721816756159486772e+01 9.624389577322935452e+01 2.286869849233392671e+01
4.678119309588324448e+00 6.885821697652532691e+01 9.166039269970229952e+01
9.863377021628616603e+01 1.015255886297199339e+01 9.081423008966437749e+01
8.531687256295501243e+01 2.465692788781986877e+01 5.855308431458896479e+01
6.958451959041804002e+01 6.988149053652973919e+01 4.568580285838490340e+01
7.275983716681014357e+01 4.300064333868817101e+01 7.965754422920290345e+00
3.442906190544852052e+01 9.192648573825266567e+01 3.956128939963321489e+00
2.943220397699636237e+01 3.455810200018512290e+01 6.465762814358268429e+01
8.256854845198087389e+01 6.484061894491593137e+01 8.495390853550296129e+01
8.702300632052826757e+01 9.605492262376412782e+01 9.343308681418922390e+01
6.044403863987716363e+01 7.705143190532346864e+01 7.176569145425859553e+00
3.420921831487755327e+01 3.107691203038366368e+01 5.176763612216895183e+00
7.207474434021682441e+01 4.663320866889441163e+01 5.016482651226156264e+01
9.156310680956347881e+01 5.691646288485843996e+01 8.383118166705727958e+00
4.761943155893733071e-01 9.646679000289989858e+01 4.801431017372972576e+01
5.266448624577814996e+01 9.066491081918732675e+01 4.368298778425695161e+01
2.930153815127409800e+01 4.749224747153905923e+01 3.743717351254009884e+01
9.980667642605224898e+01 3.026617961373720789e+01 8.215915885730376544e+01
3.195952334245773940e+01 3.373778122220152653e+01 7.711953731893851227e+01
1.952621917442654009e+01 6.666039707321783681e+01 6.402411917371929917e+01
1.007392150954325949e+01 7.588947919670962960e+01 9.306017635152204548e+01
2.935137241647212036e+01 1.663564065970730610e+01 7.357136591580834306e+01
6.934633345218584566e+01 4.563184822626809023e+00 6.095908728327532344e+01
5.373090970460000193e+01 9.787091183604927380e+01 3.032687378219646135e+01
9.220093494897166408e+01 9.943104464437068657e+01 7.055929971664036771e+01
7.119249683917095339e+00 6.594558560860923535e+01 2.315185313771125308e+01
4.735645348558605860e+01 3.165374075599287806e+01 1.099853802093925204e+01
6.842077001988579354e+01 9.012273609257633211e+01 4.274179442693052522e+01
2.076932359528557015e+01 8.192019771458673461e+01 4.335085255981112340e+01
7.636771621710596492e+01 4.499098753816369367e+01 7.468422120491357674e+00
3.728785092301810522e+01 4.826996900525627154e+01 5.329608464607245821e+01
8.688484451960968613e+01 8.189706260634991963e+01 6.937091814237778920e+01
7.550471499927046182e+01 5.841141019844253890e+01 7.697238952562922520e+01
5.940768543815628533e+01 9.815174913444506899e+01 3.897890874901204228e+01
7.471493871524769759e+01 9.698862365450588996e-01 7.525252907343372044e+01
8.021180643363106810e+01 4.204258142066997550e+01 7.066145322088148362e+01
6.038369324675773697e+00 8.495648799460721534e+01 8.318696540755493629e+01
6.075758641647797020e+01 5.842552676601545869e+01 3.575421116128109134e+01
9.436521177601979105e+01 8.953781520906312608e+01 4.450998722803034546e+00
4.005340971037585263e+01 1.333790279111254407e+01 8.327411129301169979e+01
7.649760736878140222e+01 4.097534703747876961e+01 8.884994036804648943e+01
7.896215340662675430e+01 5.814570035128410552e+01 6.936694710128971053e+01
7.951494484735658830e+01 9.346513007999023159e+01 2.325302427718214204e+01
5.867220594643591625e+01 5.840632660117414332e+01 8.381834522143984145e+01
9.025776203736350567e+01 7.844901063504690342e+01 8.119712150358266456e+01
5.232986421466924298e+01 7.607068082287474908e+01 3.719924133716111214e+01
3.631762332129441972e+01 8.180096669026029588e+01 5.947543951439230625e+01
5.117177280915038295e+01 6.457397737121316084e+01 2.901677169286308455e+01
9.473546752120385861e+01 5.861395363882982679e+01 5.321379224415321119e+01
8.819600814356037688e+01 7.431374285876161423e+01 9.455563445300214198e+01
6.512658630733568543e+01 8.188905157962557269e+01 5.152138248819761657e+01
9.476804684837169646e+01 4.900564220548108096e+01 1.883740292972040464e+01
8.169499081643601812e+01 4.854672783167098515e+01 1.116456542549504327e+01
3.297402136788244320e+01 3.107988394922275432e+01 5.051355085449689142e+01
2.898501323698585708e+01 7.690964736712406591e+01 4.907956082205100046e+00
2.565467266825497461e+01 4.146334126833632894e+01 7.929871933176056586e+01
1.312879795521489967e+01 5.292784451072161289e+01 3.092511899253481644e+01
4.954887694000450438e+01 8.248765216882482321e+01 3.495225743862708612e+01
6.172050590626789557e+01 3.556703067841595356e+01 3.568124206210838878e+01
7.678563724578644667e+01 2.894154461709710446e+01 3.521514663828527603e+01
8.864283845455382504e+01 3.940936295501097675e+01 9.436372635906477058e+01
5.491932628993715326e+01 6.877209296452203091e+01 9.518355851633312170e+01
1.464090986246039350e+01 7.492313098373584523e+01 2.049533015793149104e+01
3.112291997101580421e+01 8.677911302733399168e+01 3.292937946471730104e+00
1.744201008861391244e+01 8.415518356002507971e+01 2.981960104823039259e+01
1.587024632169331539e+00 5.982089697474835077e+01 9.158400912513042158e+01
2.532363529351203724e+01 7.583654320789956671e+01 4.408749866035347509e+01
3.518545806649575614e+00 4.473974089788889330e+01 8.282912974598332312e+01
7.390390686935592157e+01 6.952896607368261073e+01 4.713053714192627552e+01
1.612077548721997289e+01 6.983141940093814526e+01 2.247550291581715953e+01
1.831078669856496077e+01 7.914533253413105740e+01 6.586685886634030851e+01
1.185420049091455752e+01 9.564681250362066578e+01 8.990940299471694175e+01
9.921149163386877490e+01 4.779519913422262078e+01 5.571553993271343330e+01
6.506528052619592017e+01 7.219215379218728401e+01 7.744252657464039657e+01
3.620587127366206204e+01 6.217118752615573385e+01 4.476686557055052162e+01
7.761804911532496476e+01 5.002498869181833641e+01 3.659368546825777457e+01
9.359607240346801404e+01 7.707047031783154090e+00 5.980924778744197567e+01
6.014410298798507171e+01 9.222201236161703264e+01 5.501972372136253142e+01
1.724033449913745386e+01 8.384074785509533001e+01 7.382834500589480342e+01
4.420155582637568159e+01 8.353856437391551992e+01 2.356918162371990366e+00
5.089812943047707705e+01 5.443498523691660296e+01 7.519123398076565934e+01
8.614999688445240622e+01 4.811928318372987690e+01 3.386688111845212035e+01
4.731308894042758340e+01 8.733600572178223942e+00 9.349743347352423939e+01
7.741005862506589175e+00 1.538855344555566340e+01 8.111800716286080615e+01
5.957831843594578913e+01 8.283400900322845928e+00 2.381254249538621437e+01
7.957909434344571764e+01 5.855075423001294865e+01 6.222022818364781216e+00
5.993539031160942443e+01 2.566430465378465442e+01 2.636462603198631527e+01
9.942892080163412416e+00 4.562798498963149818e+00 6.810456963660290342e+01
6.804396670647821566e+01 9.528348328619571816e+01 1.644437921075618902e+01
4.668613267013509471e+01 5.950358860195237298e+01 4.051700817636577767e+01
7.717356822603332489e+01 2.160730008423953308e+01 1.504286357328453683e+01
9.228693442469817398e+01 6.774309556834772650e+01 3.311087041452700674e+01
5.373208722312805108e+00 8.251897279060696633e+01 3.880520275427745958e+01
7.075836171439598843e+01 2.058907391111232243e+01 3.246233457094235320e+01
6.501095725113702883e+01 8.479566128259715185e+01 2.400740052960936843e+00
4.225032581345710980e+01 4.917922155627931602e+01 8.580618569992172695e+01
5.771388670885072258e+01 5.087980509602616763e+01 3.401400466148862822e+00
2.303463698120290459e+01 9.494181093369805069e+01 8.966659536182234547e+01
1.258813568809284966e+01 1.559123613360522498e+01 6.666012251810865052e+01
3.487026856648349593e+01 8.170082772928081738e+01 5.221679591251010777e+01
2.927629128267047420e+01 9.364183018753652732e+01 8.920072816216185174e+01
3.716372181476388192e+01 2.987266839469810975e+01 7.488477017644193268e+01
8.059481316283278574e+00 1.194828766966006306e+01 4.199941037530041399e+01
2.282747353706191618e+01 5.247265045643151637e+01 1.298750978375223752e+01
4.829242270750177823e+01 1.581295559629796088e+01 9.762233383146374877e+01
8.784623378011589523e+01 9.911090759886766932e+01 7.994989257691274531e+01
5.780718064565032677e+01 3.870661590830588494e+01 5.658388859206451116e+01
9.262104660854008387e+01 9.708582652312016137e+01 2.584986078277773380e+00
7.527726790286632763e+01 2.768495939664365935e+01 9.219659095837981511e+01
3.699823043928424227e+01 2.313993044321547288e+01 1.333264151965483180e+01
8.280664943623372665e+01 4.739051997403189631e+01 6.880350474900289726e+01
8.591638240060305520e+01 1.563569763665983992e+00 5.790131691957704874e+01
1.800402061216935934e+01 2.575877414585240288e+01 7.408322993453845129e+01
6.767869870752130623e+01 6.966325947644705252e+01 4.979847184144786354e+01
5.479958926170859002e+01 3.409525647740424859e+01 7.040175847502706574e+01
9.842944219749715273e+01 2.993441161442355991e+01 8.036842712823981572e+01
7.468884500680654526e+01 8.588873535851449503e+01 9.356138558160245111e+01
6.207073879954152318e+01 5.814753322639213451e+01 8.117090607156292492e+01
8.718418189286146003e+01 1.484171756610017567e+01 4.340019566162560949e+01
7.689726075529895866e+01 6.130463389573981203e+01 4.883512032757996835e+00
4.151249706259048367e+01 7.474070981332472741e+01 1.521971189643034350e-01
3.637048644989349100e+00 5.056922495933935835e+00 4.231217755433532801e+01
4.548585275501680769e+01 4.249090366433951971e+01 9.436726087630999871e+01
8.170003434075987059e+01 9.125296740452239419e+01 2.560738756134369609e+01
3.633797070761703196e+01 9.193118423115737414e+01 9.425445516020300829e+01
1.564255261681504194e+01 3.919612544973951884e+01 2.262129063111240157e+01
